# .PCD v0.7 - Point Cloud Data file format
VERSION 0.7
FIELDS x y z
SIZE 4 4 4
TYPE F F F
COUNT 1 1 1
WIDTH 1731
HEIGHT 1
VIEWPOINT 0 0 0 1 0 0 0
POINTS 1731
DATA ascii
0.000000 0.000000 0.000000
0.063000 -0.059116 0.076409
0.071000 -0.066195 0.079216
0.071000 -0.066058 0.074218
0.069000 -0.062840 0.066303
0.000000 0.000000 0.000000
0.000000 0.000000 0.000000
0.000000 0.000000 0.000000
0.000000 0.000000 0.000000
0.062000 -0.054008 0.072548
0.071000 -0.060115 0.076382
0.072000 -0.059978 0.071383
0.067000 -0.054706 0.061524
0.000000 0.000000 0.000000
0.000000 0.000000 0.000000
0.000000 0.000000 0.000000
0.000000 0.000000 0.000000
0.060000 -0.047901 0.068713
0.940000 -0.734995 0.975228
1.022000 -0.781225 0.982965
1.094000 -0.818991 0.973927
0.880000 -0.677072 0.978817
0.957000 -0.715003 0.975776
1.030000 -0.750962 0.973791
1.127000 -0.801272 0.984416
0.897000 -0.661188 0.983254
0.978000 -0.698174 0.982240
1.055000 -0.733161 0.981281
1.135000 -0.766983 0.974352
0.910000 -0.642167 0.982775
0.991000 -0.675128 0.980871
1.068000 -0.706061 0.978022
1.156000 -0.742048 0.977036
0.923000 -0.623202 0.984295
1.012000 -0.657299 0.987362
1.092000 -0.687260 0.985540
1.173000 -0.714003 0.975804
0.935000 -0.603182 0.983843
1.024000 -0.633226 0.985021
1.100000 -0.658079 0.979337
1.191000 -0.687014 0.976544
0.952000 -0.586325 0.989307
1.037000 -0.610207 0.984651
1.122000 -0.636224 0.984938
1.210000 -0.660051 0.978283
0.960000 -0.564224 0.985911
1.052000 -0.588242 0.986253
1.132000 -0.608098 0.980707
1.230000 -0.633143 0.982022
0.971000 -0.544232 0.986459
1.057000 -0.561061 0.979996
1.154000 -0.586298 0.988307
1.261000 -0.611480 0.994620
0.981000 -0.522185 0.985063
1.078000 -0.542260 0.987514
1.168000 -0.559308 0.989047
1.261000 -0.575165 0.983611
0.993000 -0.503247 0.987583
1.090000 -0.519296 0.989144
1.179000 -0.532264 0.987788
1.276000 -0.546176 0.984405
1.000000 -0.481173 0.985187
1.107000 -0.497441 0.994744
1.194000 -0.506328 0.990499
1.289000 -0.515188 0.985255
1.013000 -0.461263 0.988733
1.113000 -0.471314 0.990459
1.202000 -0.478256 0.988268
1.301000 -0.484172 0.985104
1.023000 -0.440271 0.989309
1.123000 -0.446323 0.991144
1.218000 -0.452376 0.992979
1.316000 -0.455238 0.987898
1.034000 -0.419306 0.990884
1.137000 -0.423414 0.994773
1.231000 -0.425441 0.995718
1.326000 -0.423222 0.987775
1.040000 -0.396260 0.989515
1.146000 -0.397424 0.995485
1.239000 -0.396397 0.994513
1.338000 -0.392261 0.989624
1.051000 -0.375322 0.992089
1.157000 -0.373488 0.998142
1.251000 -0.368435 0.996280
1.347000 -0.360273 0.990501
1.058000 -0.353331 0.992692
1.163000 -0.347415 0.995855
1.257000 -0.339418 0.996074
1.355000 -0.328258 0.990378
1.064000 -0.330285 0.991323
1.170000 -0.321397 0.995568
1.265000 -0.310429 0.996869
1.363000 -0.296270 0.991255
1.073000 -0.308320 0.992925
1.172000 -0.294298 0.992309
1.273000 -0.281440 0.997664
1.372000 -0.264309 0.993131
1.076000 -0.285247 0.990557
1.185000 -0.269472 0.998992
1.279000 -0.252423 0.997459
1.375000 -0.231267 0.992036
1.084000 -0.263310 0.993159
1.191000 -0.243454 0.998705
1.284000 -0.222435 0.998280
1.380000 -0.198252 0.991941
1.092000 -0.240346 0.994788
1.198000 -0.217491 1.000417
1.290000 -0.193446 0.999075
1.385000 -0.165292 0.993844
1.090000 -0.216163 0.988449
1.200000 -0.190419 0.998158
1.296000 -0.163484 1.000897
1.387000 -0.132277 0.993749
1.102000 -0.194363 0.996049
1.201000 -0.163375 0.996898
1.298000 -0.134468 1.000691
1.395000 -0.099371 0.997652
1.105000 -0.170317 0.994707
1.211000 -0.137494 1.001609
1.297000 -0.104397 0.998515
1.391000 -0.066274 0.994558
1.108000 -0.147298 0.994338
1.211000 -0.110449 1.000349
1.303000 -0.074463 1.001336
1.394000 -0.033314 0.996461
1.115000 -0.123390 0.997994
1.216000 -0.083514 1.003088
1.302000 -0.044419 1.000158
1.393000 -0.001298 0.996338
1.113000 -0.099262 0.993653
1.219000 -0.056524 1.003828
1.308000 -0.015567 1.005951
1.392000 0.031689 0.997243
1.118000 -0.075325 0.996310
1.215000 -0.029425 1.000569
1.309000 0.014422 1.006773
1.393000 0.064622 1.000146
1.123000 -0.052389 0.998940
1.220000 -0.002517 1.004308
1.302000 0.044547 1.002597
1.391000 0.097610 1.001050
1.121000 -0.028288 0.995599
1.219000 0.024500 1.004048
1.305000 0.074454 1.006418
1.384000 0.130679 0.998955
1.125000 -0.004352 0.998256
1.217000 0.051545 1.002789
1.304000 0.104443 1.007240
1.381000 0.162640 1.000832
1.126000 0.019639 0.998913
1.214000 0.078589 1.001529
1.295000 0.133541 1.004036
1.375000 0.195655 1.000736
1.125000 0.043685 0.997571
1.217000 0.106497 1.005295
1.292000 0.163557 1.003858
1.370000 0.227643 1.001613
1.126000 0.068648 0.999256
1.216000 0.133459 1.007035
1.289000 0.193519 1.005680
1.363000 0.259631 1.002490
1.128000 0.093584 1.001940
1.212000 0.160476 1.006775
1.287000 0.223425 1.009500
1.362000 0.293481 1.008420
1.122000 0.117712 0.997600
1.209000 0.187494 1.006515
1.285000 0.254359 1.012349
1.351000 0.324524 1.007270
1.123000 0.142648 1.000284
1.206000 0.215428 1.009281
1.271000 0.281513 1.007091
1.339000 0.354595 1.005093
1.123000 0.167583 1.002968
1.197000 0.241556 1.004995
1.264000 0.310502 1.007886
1.335000 0.387446 1.010995
1.119000 0.191629 1.001626
1.193000 0.268518 1.006735
1.257000 0.339491 1.008680
1.321000 0.417517 1.008818
1.118000 0.216592 1.003311
1.191000 0.296425 1.010501
1.251000 0.369425 1.011501
1.308000 0.447533 1.008640
1.116000 0.242555 1.005023
1.183000 0.322470 1.009214
1.244000 0.398387 1.013295
1.300000 0.479439 1.012516
1.108000 0.265656 1.001655
1.172000 0.348570 1.005928
1.232000 0.425432 1.012036
1.284000 0.507511 1.010284
1.104000 0.290647 1.002339
1.167000 0.375478 1.009667
1.223000 0.455366 1.014857
1.270000 0.536500 1.011079
1.102000 0.316555 1.006051
1.159000 0.401468 1.010379
1.213000 0.483355 1.015624
1.257000 0.566461 1.012900
1.092000 0.339683 1.001683
1.156000 0.430348 1.015172
1.195000 0.507483 1.011284
1.241000 0.594478 1.012668
1.091000 0.366536 1.007421
1.143000 0.455448 1.011858
1.188000 0.537362 1.016104
1.224000 0.622495 1.012435
1.091000 0.393389 1.013159
1.129000 0.479548 1.008517
1.172000 0.563435 1.013818
1.210000 0.651429 1.015229
1.076000 0.415600 1.005764
1.120000 0.505511 1.010229
1.161000 0.591369 1.016584
1.190000 0.676502 1.012915
1.067000 0.439618 1.005422
1.111000 0.532446 1.012968
1.142000 0.614470 1.013216
0.000000 0.000000 0.000000
1.069000 0.468361 1.015213
1.103000 0.559354 1.016707
1.141000 0.648156 1.025143
0.000000 0.000000 0.000000
1.059000 0.492379 1.014871
1.088000 0.583427 1.014366
0.000000 0.000000 0.000000
0.072000 0.047256 0.064319
1.054000 0.519287 1.018610
1.072000 0.606501 1.011997
0.072000 0.045201 0.066263
0.000000 0.000000 0.000000
1.041000 0.542360 1.016241
0.076000 0.045010 0.073261
0.074000 0.049118 0.069372
0.074000 0.054143 0.068509
1.034000 0.569268 1.019980
0.076000 0.048009 0.073343
0.000000 0.000000 0.000000
0.000000 0.000000 0.000000
0.000000 0.000000 0.000000
0.000000 0.000000 0.000000
0.073000 0.053061 0.071481
0.064000 0.051336 0.061430
0.000000 0.000000 0.000000
0.071000 0.049090 0.070371
0.000000 0.000000 0.000000
0.000000 0.000000 0.000000
0.071000 0.045037 0.072261
0.000000 0.000000 0.000000
0.069000 0.055116 0.069536
0.063000 0.056280 0.063566
0.000000 0.000000 0.000000
0.069000 0.052062 0.071453
0.000000 0.000000 0.000000
0.990000 0.919383 1.020573
0.070000 0.050008 0.073398
0.000000 0.000000 0.000000
0.000000 0.000000 0.000000
0.980000 0.953987 1.035526
0.000000 0.000000 0.000000
0.065000 0.054116 0.069509
0.949000 0.877426 1.018422
0.938000 0.956534 1.015589
0.067000 0.052034 0.072453
0.000000 0.000000 0.000000
0.933000 0.902307 1.023106
0.914000 0.976499 1.017136
0.000000 0.000000 0.000000
0.913000 0.837551 1.013328
0.912000 0.923272 1.024681
0.893000 0.998408 1.020738
0.061000 0.052144 0.068454
0.904000 0.868238 1.025173
0.889000 0.942320 1.023202
0.866000 1.013485 1.018150
0.000000 0.000000 0.000000
0.877000 0.881507 1.015533
0.868000 0.963285 1.024777
0.845000 1.036339 1.023778
0.879000 0.824364 1.019969
0.858000 0.902472 1.017108
0.845000 0.982277 1.025298
0.816000 1.049471 1.019136
0.868000 0.852189 1.026734
0.839000 0.925436 1.018738
0.820000 0.998354 1.022737
0.796000 1.073271 1.026791
0.845000 0.868375 1.020175
0.820000 0.946401 1.020313
0.799000 1.019291 1.025312
0.764000 1.081460 1.020013
0.830000 0.894228 1.025885
0.801000 0.967338 1.022887
0.770000 1.030451 1.019615
0.743000 1.103287 1.026613
0.808000 0.911359 1.021353
0.780000 0.987303 1.024435
0.754000 1.058167 1.030379
0.712000 1.111448 1.020835
0.791000 0.935268 1.025010
0.758000 1.006296 1.024956
0.724000 1.066383 1.022601
0.688000 1.129332 1.025327
0.776000 0.962093 1.031747
0.737000 1.027206 1.028530
0.705000 1.090155 1.031255
0.660000 1.141382 1.023656
0.753000 0.978224 1.027187
0.712000 1.042310 1.024942
0.676000 1.100288 1.026531
0.633000 1.153378 1.023985
0.733000 1.000161 1.029789
0.690000 1.060276 1.026435
0.650000 1.114310 1.025915
0.607000 1.168317 1.026395
0.709000 1.016265 1.026229
0.665000 1.075297 1.025846
0.623000 1.126388 1.023245
0.580000 1.182257 1.028778
0.685000 1.032368 1.022669
0.641000 1.092318 1.025313
0.597000 1.140355 1.024628
0.549000 1.185393 1.023862
0.666000 1.057194 1.029352
0.618000 1.111229 1.028832
0.571000 1.154322 1.026012
0.525000 1.202222 1.030326
0.639000 1.069354 1.023683
0.591000 1.123279 1.027161
0.549000 1.175123 1.033584
0.495000 1.208302 1.027491
0.618000 1.090264 1.027257
0.568000 1.142190 1.030681
0.520000 1.182230 1.029778
0.467000 1.217299 1.027738
0.597000 1.113146 1.031886
0.540000 1.150324 1.025902
0.493000 1.194225 1.030106
0.403000 1.126526 0.945220
0.569000 1.124279 1.027189
0.514000 1.166291 1.027340
0.463000 1.197389 1.024191
0.348000 1.044502 0.871945
0.544000 1.141272 1.027655
0.488000 1.178286 1.027669
0.416000 1.153611 0.978974
0.314000 1.019197 0.846242
0.518000 1.154322 1.026012
0.462000 1.193253 1.029079
0.347000 1.035478 0.872698
0.294000 1.033972 0.854650
0.496000 1.180094 1.034721
0.416000 1.151475 0.983918
0.316000 1.020005 0.853267
0.277000 1.064413 0.875492
0.465000 1.183366 1.024807
0.348000 1.038313 0.878778
0.295000 1.034835 0.859675
0.279000 1.180930 0.967719
0.428000 1.169974 1.002432
0.316000 1.018951 0.855238
0.277000 1.059415 0.875355
0.272000 1.275893 1.043349
0.353000 1.040285 0.879832
0.293000 1.029892 0.857539
0.278000 1.173015 0.964501
0.240000 1.265199 1.032052
0.318000 1.018033 0.852212
0.276000 1.061359 0.877409
0.271000 1.270005 1.039186
0.213000 1.274086 1.036297
0.297000 1.035862 0.858703
0.280000 1.189707 0.975962
0.240000 1.262282 1.028971
0.182000 1.259447 1.022891
0.278000 1.063495 0.872465
0.266000 1.261310 1.027944
0.212000 1.273168 1.033270
0.155000 1.275140 1.034325
0.293000 1.238866 1.007321
0.237000 1.270279 1.029190
0.183000 1.277167 1.033380
0.125000 1.262419 1.023973
0.270000 1.278194 1.032408
0.210000 1.285109 1.035599
0.154000 1.282165 1.033517
0.100000 1.288861 1.044705
0.239000 1.281384 1.025493
0.179000 1.283274 1.029546
0.125000 1.282220 1.031518
0.070000 1.265363 1.026054
0.211000 1.299186 1.032983
0.151000 1.302993 1.040090
0.097000 1.292052 1.037790
0.042000 1.276112 1.035352
0.179000 1.301322 1.028040
0.120000 1.300158 1.034010
0.067000 1.282302 1.028519
0.013000 1.165511 0.946288
0.149000 1.315207 1.032422
0.090000 1.299268 1.029984
0.038000 1.295050 1.037872
-0.011000 1.075436 0.874793
0.117000 1.315344 1.027424
0.060000 1.303267 1.030094
0.008000 1.123760 0.900127
-0.033000 1.028413 0.838491
0.085000 1.297871 1.007938
0.030000 1.317042 1.038474
-0.015000 1.035657 0.829687
-0.056000 1.039135 0.848789
0.055000 1.332283 1.029889
0.000000 1.066399 0.839533
-0.038000 1.032713 0.827605
-0.080000 1.050802 0.861113
0.023000 1.351974 1.041433
-0.023000 1.030180 0.810529
-0.062000 1.038574 0.832768
-0.122000 1.248369 1.025588
-0.006000 1.053253 0.808161
-0.047000 1.027263 0.807448
-0.088000 1.064961 0.855499
-0.149000 1.245316 1.027505
-0.030000 1.022922 0.783320
-0.072000 1.041956 0.818855
-0.135000 1.289053 1.037707
-0.178000 1.257900 1.042856
-0.055000 1.030810 0.787538
-0.102000 1.103644 0.867564
-0.163000 1.276277 1.029354
-0.203000 1.236264 1.029258
-0.082000 1.055335 0.805217
-0.152000 1.318097 1.036503
-0.193000 1.279111 1.035434
-0.231000 1.239044 1.037337
-0.140000 1.367968 1.041871
-0.182000 1.311209 1.032312
-0.220000 1.269224 1.031162
-0.254000 1.218381 1.024766
-0.171000 1.353275 1.030464
-0.213000 1.310182 1.033285
-0.250000 1.272059 1.037242
-0.284000 1.226022 1.037980
-0.204000 1.351331 1.028410
-0.244000 1.308155 1.034229
-0.277000 1.260200 1.031915
-0.306000 1.205331 1.026409
-0.237000 1.350304 1.029382
-0.274000 1.299268 1.029984
-0.306000 1.258119 1.034859
-0.334000 1.203194 1.031353
-0.270000 1.346360 1.027274
-0.305000 1.296242 1.030902
-0.333000 1.246233 1.030532
-0.359000 1.192226 1.030052
-0.305000 1.349249 1.031354
-0.336000 1.293188 1.032819
-0.363000 1.245096 1.035502
-0.385000 1.188091 1.034940
-0.338000 1.347223 1.032299
-0.366000 1.285218 1.031600
-0.326000 1.033671 0.865646
-0.325000 0.933887 0.819895
-0.372000 1.343224 1.032189
0.000000 0.000000 0.000000
-0.319000 0.937708 0.789988
-0.346000 0.928834 0.821757
0.000000 0.000000 0.000000
-0.308000 0.917949 0.744430
-0.334000 0.914073 0.776335
-0.371000 0.935448 0.835943
-0.300000 0.910993 0.706225
-0.326000 0.904146 0.737049
-0.362000 0.925657 0.791659
-0.443000 1.050444 0.947136
-0.322000 0.904050 0.704034
-0.356000 0.920646 0.755508
-0.397000 0.950881 0.820360
-0.456000 1.018977 0.927266
-0.350000 0.912745 0.715276
-0.383000 0.924398 0.764614
-0.529000 1.192979 1.039076
-0.533000 1.127031 1.036268
-0.383000 0.931245 0.733790
-0.550000 1.245042 1.037501
0.000000 0.000000 0.000000
0.000000 0.000000 0.000000
-0.556000 1.263022 1.001981
0.000000 0.000000 0.000000
-0.409000 0.821341 0.728777
-0.435000 0.827968 0.778977
-0.396000 0.843840 0.674373
-0.405000 0.814385 0.690572
-0.427000 0.813317 0.729557
-0.452000 0.817000 0.777676
-0.399000 0.800624 0.645178
-0.428000 0.811249 0.695488
-0.452000 0.815069 0.738609
-0.481000 0.827448 0.797970
-0.426000 0.804376 0.654284
-0.450000 0.807141 0.699377
-0.477000 0.817739 0.750686
-0.646000 1.057085 1.033350
-0.451000 0.804184 0.661281
-0.485000 0.824504 0.722861
-0.576000 0.938460 0.872040
-0.644000 1.006091 0.995939
-0.495000 0.836295 0.694174
-0.724000 1.169043 1.036419
-0.699000 1.083459 1.020068
-0.688000 1.027124 1.031529
0.000000 0.000000 0.000000
0.000000 0.000000 0.000000
0.000000 0.000000 0.000000
-0.702000 1.001407 1.020820
0.000000 0.000000 0.000000
0.000000 0.000000 0.000000
0.000000 0.000000 0.000000
-0.730000 0.995163 1.029652
0.000000 0.000000 0.000000
0.000000 0.000000 0.000000
0.000000 0.000000 0.000000
0.000000 0.000000 0.000000
-0.230000 0.314591 0.274722
-0.236000 0.313071 0.293688
-0.252000 0.323272 0.322978
-0.262000 0.328530 0.350133
0.000000 0.000000 0.000000
0.000000 0.000000 0.000000
0.000000 0.000000 0.000000
0.000000 0.000000 0.000000
-0.245000 0.303623 0.273421
0.000000 0.000000 0.000000
-0.262000 0.307415 0.317542
-0.268000 0.307785 0.340561
0.000000 0.000000 0.000000
0.000000 0.000000 0.000000
0.000000 0.000000 0.000000
0.000000 0.000000 0.000000
-0.189000 0.212658 0.197901
-0.062000 0.068138 0.068893
-0.056000 0.060251 0.064675
-0.059000 0.062085 0.070728
0.000000 0.000000 0.000000
0.000000 0.000000 0.000000
0.000000 0.000000 0.000000
0.000000 0.000000 0.000000
-0.058000 0.058471 0.056623
-0.059000 0.059333 0.061649
-0.059000 0.058251 0.064620
-0.063000 0.061031 0.072699
0.000000 0.000000 0.000000
0.000000 0.000000 0.000000
0.000000 0.000000 0.000000
0.000000 0.000000 0.000000
-0.061000 0.056444 0.057568
-0.065000 0.059251 0.064648
-0.065000 0.058142 0.068619
-0.068000 0.059949 0.075671
0.000000 0.000000 0.000000
0.000000 0.000000 0.000000
0.000000 0.000000 0.000000
0.000000 0.000000 0.000000
-0.065000 0.054417 0.058513
-0.071000 0.059169 0.067647
-0.071000 0.058060 0.071618
-0.066000 0.054061 0.071508
0.000000 0.000000 0.000000
0.000000 0.000000 0.000000
0.000000 0.000000 0.000000
0.000000 0.000000 0.000000
0.000000 0.000000 0.000000
-0.070000 0.053253 0.064483
-0.071000 0.053144 0.068482
-0.069000 0.052062 0.071453
0.000000 0.000000 0.000000
0.000000 0.000000 0.000000
0.000000 0.000000 0.000000
0.000000 0.000000 0.000000
-0.397000 0.273181 0.325607
-0.396000 0.272551 0.348598
-0.481000 0.329789 0.450205
-0.514000 0.353971 0.516892
0.000000 0.000000 0.000000
0.000000 0.000000 0.000000
0.000000 0.000000 0.000000
-0.507000 0.333390 0.501323
-0.492000 0.305470 0.388515
-0.488000 0.303731 0.415478
-0.496000 0.308797 0.449629
-0.504000 0.316643 0.491860
0.000000 0.000000 0.000000
0.000000 0.000000 0.000000
0.000000 0.000000 0.000000
-0.484000 0.290365 0.465130
0.000000 0.000000 0.000000
-0.503000 0.280767 0.413848
-0.485000 0.273386 0.427651
-0.470000 0.268894 0.445534
-0.508000 0.266622 0.382449
0.000000 0.000000 0.000000
0.000000 0.000000 0.000000
-0.076000 0.041066 0.071152
-0.363000 0.179697 0.269024
-0.087000 0.044092 0.070234
-0.078000 0.039176 0.067099
0.000000 0.000000 0.000000
0.000000 0.000000 0.000000
0.000000 0.000000 0.000000
0.000000 0.000000 0.000000
-0.081000 0.039984 0.074123
-0.469000 0.204796 0.338738
-0.496000 0.220475 0.387186
-0.493000 0.222788 0.412259
-0.490000 0.227964 0.442412
0.000000 0.000000 0.000000
0.000000 0.000000 0.000000
0.000000 0.000000 0.000000
-0.480000 0.211327 0.428951
-0.510000 0.194224 0.359456
-0.499000 0.194676 0.379476
-0.491000 0.197072 0.401550
0.000000 0.000000 0.000000
0.000000 0.000000 0.000000
0.000000 0.000000 0.000000
0.000000 0.000000 0.000000
-0.488000 0.190390 0.426376
-0.541000 0.177847 0.373013
-0.519000 0.176491 0.385980
-0.512000 0.179832 0.410081
0.000000 0.000000 0.000000
0.000000 0.000000 0.000000
0.000000 0.000000 0.000000
0.000000 0.000000 0.000000
-0.499000 0.171342 0.427855
-0.576000 0.159388 0.389513
-0.545000 0.158142 0.398482
-0.520000 0.156868 0.408451
0.000000 0.000000 0.000000
0.000000 0.000000 0.000000
0.000000 0.000000 0.000000
0.000000 0.000000 0.000000
-0.506000 0.150350 0.427280
-0.646000 0.146296 0.429169
-0.580000 0.139628 0.416982
-0.548000 0.139463 0.422980
0.000000 0.000000 0.000000
-1.514000 0.305723 0.999752
-0.621000 0.134890 0.443862
0.000000 0.000000 0.000000
-0.526000 0.133082 0.436810
-1.519000 0.269792 0.996766
-0.629000 0.121840 0.445505
-0.584000 0.121867 0.444506
0.000000 0.000000 0.000000
-1.524000 0.233860 0.993780
-1.419000 0.241693 0.999997
-0.626000 0.116074 0.473358
-0.550000 0.114705 0.450312
-1.533000 0.198818 0.994821
-1.426000 0.208705 0.999093
0.000000 0.000000 0.000000
-0.589000 0.109940 0.478192
-1.533000 0.161969 0.988809
-1.431000 0.176744 0.997217
-1.331000 0.188795 0.995546
-0.612000 0.101504 0.493966
-1.533000 0.125065 0.984796
-1.428000 0.143894 0.991315
-1.333000 0.158888 0.991726
0.000000 0.000000 0.000000
-1.513000 0.088490 0.968788
-1.436000 0.111878 0.991437
-1.349000 0.131679 0.998983
-1.253000 0.153643 1.000585
-1.424000 0.049122 0.908687
-1.433000 0.079000 0.986535
-1.341000 0.100937 0.989137
-1.243000 0.126010 0.986823
-1.303000 0.014273 0.829702
-1.425000 0.046232 0.977634
-1.349000 0.071893 0.990341
-1.264000 0.101663 0.999160
-1.243000 -0.014647 0.789895
-1.348000 0.012725 0.922695
-1.337000 0.042206 0.978524
-1.249000 0.074084 0.983399
-1.163000 -0.040240 0.738175
-1.212000 -0.015661 0.826881
-1.332000 0.012354 0.972704
-1.264000 0.047848 0.991683
0.000000 0.000000 0.000000
-1.164000 -0.040747 0.793181
-1.282000 -0.016593 0.933896
-1.252000 0.021186 0.978948
0.000000 0.000000 0.000000
0.000000 0.000000 0.000000
-1.190000 -0.039693 0.864237
-1.263000 -0.004968 0.984233
0.000000 0.000000 0.000000
0.000000 0.000000 0.000000
-1.094000 -0.060767 0.793633
-1.230000 -0.030191 0.955531
-0.947000 -0.121537 0.601896
0.000000 0.000000 0.000000
-1.058000 -0.082046 0.767040
-1.167000 -0.053785 0.903866
-0.931000 -0.141282 0.592351
-0.958000 -0.119908 0.651959
-0.993000 -0.098752 0.719564
-1.075000 -0.071804 0.831345
-0.882000 -0.155482 0.562951
-0.926000 -0.137353 0.631474
-0.958000 -0.117032 0.693054
-1.024000 -0.090674 0.789812
-0.851000 -0.170011 0.545547
-0.888000 -0.152662 0.606045
-0.947000 -0.136833 0.685508
-0.981000 -0.107763 0.756331
-0.821000 -0.184512 0.527143
-0.856000 -0.167108 0.585641
-0.917000 -0.152252 0.664078
-0.953000 -0.125153 0.733846
-0.791000 -0.197069 0.510792
-0.825000 -0.180555 0.565265
-0.883000 -0.166616 0.640676
-0.940000 -0.143899 0.724329
-0.763000 -0.208626 0.494470
-0.794000 -0.192030 0.545944
-0.833000 -0.176653 0.605387
-0.903000 -0.158127 0.695929
-0.735000 -0.219211 0.479174
-0.768000 -0.204614 0.530593
-0.806000 -0.189155 0.587038
-0.871000 -0.171464 0.671554
-0.710000 -0.229823 0.464878
-0.744000 -0.216226 0.516270
-0.778000 -0.200657 0.568716
-0.826000 -0.181528 0.637266
-0.691000 -0.241572 0.455552
-0.718000 -0.225811 0.501001
-0.756000 -0.213269 0.554365
-0.792000 -0.191839 0.611974
-0.660000 -0.248104 0.438367
-0.694000 -0.235397 0.485733
-0.726000 -0.221717 0.534126
-0.766000 -0.202314 0.592679
-0.644000 -0.258935 0.432068
-0.672000 -0.245064 0.473463
-0.707000 -0.233384 0.521802
-0.743000 -0.213871 0.576357
-0.619000 -0.265576 0.418881
-0.652000 -0.254786 0.463193
-0.685000 -0.243024 0.508533
-0.718000 -0.223375 0.558089
-0.601000 -0.274326 0.409638
-0.631000 -0.262455 0.450979
-0.660000 -0.250583 0.492319
-0.698000 -0.233987 0.543793
-0.596000 -0.288376 0.411253
-0.609000 -0.270123 0.438764
-0.638000 -0.258224 0.479105
-0.681000 -0.244681 0.532496
-0.566000 -0.289909 0.394205
-0.595000 -0.279927 0.431492
-0.620000 -0.266919 0.467863
-0.658000 -0.252267 0.517283
-0.553000 -0.299796 0.389932
-0.578000 -0.287705 0.423276
-0.602000 -0.274642 0.457647
-0.640000 -0.260935 0.505040
-0.534000 -0.305547 0.380771
-0.556000 -0.292374 0.411144
-0.587000 -0.283419 0.449404
-0.616000 -0.267494 0.488855
-0.517000 -0.311326 0.372610
-0.542000 -0.301234 0.405899
-0.567000 -0.290115 0.438216
-0.600000 -0.276244 0.479611
-0.500000 -0.317159 0.366448
0.000000 0.000000 0.000000
-0.550000 -0.296866 0.429027
-0.585000 -0.284967 0.469369
0.000000 0.000000 0.000000
-0.507000 -0.311737 0.387605
-0.538000 -0.305698 0.422783
-0.566000 -0.290663 0.458208
-0.073000 -0.051543 0.055609
-0.497000 -0.320651 0.384359
-0.520000 -0.310422 0.412650
-0.553000 -0.299441 0.449965
0.000000 0.000000 0.000000
0.000000 0.000000 0.000000
0.000000 0.000000 0.000000
-0.531000 -0.303083 0.436860
-0.072000 -0.055569 0.056499
-0.074000 -0.052625 0.058580
-0.489000 -0.322007 0.397327
-0.522000 -0.312970 0.432588
0.000000 0.000000 0.000000
-0.071000 -0.052597 0.057581
0.000000 0.000000 0.000000
-0.501000 -0.315612 0.419510
-0.070000 -0.058568 0.056417
0.000000 0.000000 0.000000
-0.073000 -0.052680 0.060579
-0.490000 -0.324472 0.414266
0.000000 0.000000 0.000000
-0.071000 -0.057650 0.059443
0.000000 0.000000 0.000000
-0.073000 -0.050735 0.062633
-0.068000 -0.062566 0.056307
0.000000 0.000000 0.000000
-0.071000 -0.056678 0.060470
0.000000 0.000000 0.000000
0.000000 0.000000 0.000000
-0.067000 -0.059622 0.058388
0.000000 0.000000 0.000000
-0.069000 -0.052680 0.060579
-0.305000 -0.307449 0.267677
0.000000 0.000000 0.000000
-0.070000 -0.060704 0.061360
0.000000 0.000000 0.000000
0.000000 0.000000 0.000000
-0.062000 -0.060540 0.055362
0.000000 0.000000 0.000000
-0.070000 -0.057732 0.062442
-0.345000 -0.380820 0.316685
0.000000 0.000000 0.000000
-0.063000 -0.059595 0.057389
0.000000 0.000000 0.000000
0.000000 0.000000 0.000000
-0.351000 -0.375151 0.328845
0.000000 0.000000 0.000000
-0.065000 -0.058677 0.060415
-0.318000 -0.384571 0.307579
0.000000 0.000000 0.000000
-0.355000 -0.368372 0.337034
0.000000 0.000000 0.000000
0.000000 0.000000 0.000000
-0.328000 -0.383983 0.322601
0.000000 0.000000 0.000000
-0.065000 -0.064730 0.062250
-0.296000 -0.392459 0.303361
0.000000 0.000000 0.000000
-0.335000 -0.380258 0.332707
0.000000 0.000000 0.000000
0.000000 0.000000 0.000000
-0.303000 -0.386708 0.312522
0.000000 0.000000 0.000000
-0.346000 -0.377561 0.343785
-0.279000 -0.405481 0.304005
0.000000 0.000000 0.000000
-0.314000 -0.390090 0.326435
0.000000 0.000000 0.000000
0.000000 0.000000 0.000000
-0.283000 -0.396622 0.309249
0.000000 0.000000 0.000000
-0.324000 -0.386338 0.335541
-0.256000 -0.410343 0.298870
0.000000 0.000000 0.000000
-0.293000 -0.398950 0.321190
0.000000 0.000000 0.000000
0.000000 0.000000 0.000000
-0.262000 -0.404509 0.305032
0.000000 0.000000 0.000000
-0.297000 -0.389008 0.323463
-0.237000 -0.420339 0.298596
0.000000 0.000000 0.000000
-0.269000 -0.401675 0.311112
0.000000 0.000000 0.000000
0.000000 0.000000 0.000000
-0.244000 -0.415478 0.303731
0.000000 0.000000 0.000000
-0.277000 -0.398840 0.317192
-0.215000 -0.424228 0.294487
0.000000 0.000000 0.000000
-0.249000 -0.411616 0.308838
0.000000 0.000000 0.000000
0.000000 0.000000 0.000000
-0.223000 -0.421393 0.300567
0.000000 0.000000 0.000000
-0.257000 -0.407727 0.312946
-0.197000 -0.434279 0.296213
0.000000 0.000000 0.000000
-0.231000 -0.423584 0.307510
0.000000 0.000000 0.000000
0.000000 0.000000 0.000000
-0.204000 -0.431362 0.299294
0.000000 0.000000 0.000000
-0.236000 -0.416587 0.307702
-0.178000 -0.442276 0.295994
0.000000 0.000000 0.000000
-0.212000 -0.432526 0.305264
0.000000 0.000000 0.000000
0.000000 0.000000 0.000000
-0.185000 -0.440359 0.299047
0.000000 0.000000 0.000000
-0.217000 -0.426528 0.305429
-0.158000 -0.447274 0.295857
0.000000 0.000000 0.000000
-0.192000 -0.440468 0.303046
0.000000 0.000000 0.000000
0.000000 0.000000 0.000000
-0.165000 -0.446329 0.297883
0.000000 0.000000 0.000000
-0.196000 -0.432389 0.300266
-0.140000 -0.459379 0.299526
0.000000 0.000000 0.000000
-0.171000 -0.446384 0.299882
0.000000 0.000000 0.000000
0.000000 0.000000 0.000000
-0.145000 -0.455353 0.298636
0.000000 0.000000 0.000000
-0.176000 -0.441304 0.297021
-0.121000 -0.469457 0.302251
0.000000 0.000000 0.000000
-0.150000 -0.452327 0.297719
0.000000 0.000000 0.000000
0.000000 0.000000 0.000000
-0.125000 -0.461351 0.298472
0.000000 0.000000 0.000000
-0.154000 -0.445192 0.292912
-0.100000 -0.473483 0.303141
0.000000 0.000000 0.000000
-0.130000 -0.461323 0.297472
0.000000 0.000000 0.000000
0.000000 0.000000 0.000000
-0.106000 -0.471429 0.301197
0.000000 0.000000 0.000000
-0.135000 -0.457215 0.293583
-0.080000 -0.479508 0.303976
0.000000 0.000000 0.000000
-0.111000 -0.473428 0.301142
0.000000 0.000000 0.000000
0.000000 0.000000 0.000000
-0.086000 -0.479481 0.302977
0.000000 0.000000 0.000000
-0.115000 -0.466212 0.293337
-0.060000 -0.487642 0.308755
0.000000 0.000000 0.000000
-0.090000 -0.478372 0.299006
0.000000 0.000000 0.000000
0.000000 0.000000 0.000000
-0.065000 -0.485506 0.303812
0.000000 0.000000 0.000000
-0.093000 -0.472155 0.291173
-0.040000 -0.499830 0.315424
0.000000 0.000000 0.000000
-0.068000 -0.484397 0.299841
0.000000 0.000000 0.000000
0.000000 0.000000 0.000000
-0.044000 -0.494612 0.307564
0.000000 0.000000 0.000000
-0.072000 -0.481206 0.292926
-0.019000 -0.506937 0.319231
0.000000 0.000000 0.000000
-0.047000 -0.493476 0.302593
0.000000 0.000000 0.000000
0.000000 0.000000 0.000000
-0.023000 -0.504746 0.312288
0.000000 0.000000 0.000000
-0.049000 -0.486177 0.291789
0.002000 -0.518179 0.327926
0.000000 0.000000 0.000000
-0.025000 -0.505608 0.307263
0.000000 0.000000 0.000000
0.000000 0.000000 0.000000
-0.001000 -0.516933 0.318957
0.000000 0.000000 0.000000
-0.027000 -0.494229 0.293569
0.024000 -0.525313 0.332732
0.000000 0.000000 0.000000
-0.002000 -0.516769 0.312959
0.000000 0.000000 0.000000
0.000000 0.000000 0.000000
0.021000 -0.523068 0.323790
0.000000 0.000000 0.000000
-0.004000 -0.513468 0.302045
0.048000 -0.534557 0.341482
0.000000 0.000000 0.000000
0.020000 -0.524875 0.316738
0.000000 0.000000 0.000000
0.000000 0.000000 0.000000
0.045000 -0.534283 0.331486
0.000000 0.000000 0.000000
0.019000 -0.522547 0.304798
0.071000 -0.538665 0.345371
0.000000 0.000000 0.000000
0.045000 -0.533009 0.321517
0.000000 0.000000 0.000000
0.000000 0.000000 0.000000
0.071000 -0.546525 0.340154
0.000000 0.000000 0.000000
0.045000 -0.534734 0.311466
0.098000 -0.557096 0.360872
0.000000 0.000000 0.000000
0.071000 -0.545196 0.328186
0.000000 0.000000 0.000000
0.000000 0.000000 0.000000
0.096000 -0.551660 0.345015
0.000000 0.000000 0.000000
0.073000 -0.547949 0.319107
0.125000 -0.568421 0.372566
0.000000 0.000000 0.000000
0.099000 -0.555439 0.336908
0.000000 0.000000 0.000000
0.000000 0.000000 0.000000
0.125000 -0.565983 0.356627
0.000000 0.000000 0.000000
0.100000 -0.555056 0.322914
0.153000 -0.578719 0.383288
0.000000 0.000000 0.000000
0.128000 -0.570735 0.347493
0.000000 0.000000 0.000000
0.000000 0.000000 0.000000
0.154000 -0.577281 0.367321
0.000000 0.000000 0.000000
0.130000 -0.567270 0.330582
0.184000 -0.593152 0.398898
0.000000 0.000000 0.000000
0.158000 -0.577924 0.354299
0.000000 0.000000 0.000000
0.200000 -0.598342 0.405759
0.000000 0.000000 0.000000
0.000000 0.000000 0.000000
0.163000 -0.582594 0.342166
0.214000 -0.599451 0.409730
0.204000 -0.602956 0.391627
0.191000 -0.592302 0.367910
0.181000 -0.591782 0.348917
0.233000 -0.611803 0.422396
0.222000 -0.611172 0.399405
0.211000 -0.604572 0.377578
0.200000 -0.599971 0.355695
0.249000 -0.614966 0.428312
0.240000 -0.616362 0.406265
0.230000 -0.615842 0.387272
0.219000 -0.610186 0.363418
0.268000 -0.623237 0.438089
0.259000 -0.625633 0.416015
0.247000 -0.617951 0.391216
0.237000 -0.613322 0.368334
0.288000 -0.631535 0.448866
0.279000 -0.631877 0.424847
0.268000 -0.628221 0.400938
0.259000 -0.625592 0.378002
0.309000 -0.642887 0.461559
0.296000 -0.634013 0.429790
0.287000 -0.632411 0.407826
0.279000 -0.630781 0.384862
0.329000 -0.649159 0.471391
0.321000 -0.648419 0.444401
0.310000 -0.642709 0.418548
0.301000 -0.637971 0.391668
0.352000 -0.659539 0.485112
0.342000 -0.654664 0.453234
0.333000 -0.650980 0.428325
0.326000 -0.651322 0.404307
0.372000 -0.662784 0.494026
0.365000 -0.662989 0.465010
0.358000 -0.661305 0.440047
0.351000 -0.661592 0.414029
0.398000 -0.675218 0.509692
0.388000 -0.670288 0.475814
0.383000 -0.671630 0.451768
0.376000 -0.668863 0.423833
0.421000 -0.681545 0.521523
0.414000 -0.679641 0.488562
0.409000 -0.679956 0.463544
0.402000 -0.677134 0.433610
0.447000 -0.689925 0.535298
0.442000 -0.690048 0.503283
0.439000 -0.692362 0.478210
0.433000 -0.691540 0.448221
0.477000 -0.704441 0.553908
0.470000 -0.699456 0.518031
0.465000 -0.698661 0.489042
0.461000 -0.696812 0.458081
0.520000 -0.734361 0.587100
0.501000 -0.711917 0.534696
0.496000 -0.709068 0.503762
0.492000 -0.708219 0.472774
0.553000 -0.746905 0.606764
0.550000 -0.745863 0.568778
0.546000 -0.742960 0.535845
0.532000 -0.726760 0.492273
0.589000 -0.761530 0.629372
0.587000 -0.760461 0.590386
0.585000 -0.759529 0.556399
0.582000 -0.756571 0.521467
0.629000 -0.778236 0.654923
0.630000 -0.779167 0.615883
0.628000 -0.778180 0.579897
0.629000 -0.778221 0.544883
0.673000 -0.799050 0.684364
0.673000 -0.795846 0.640436
0.674000 -0.795859 0.604422
0.676000 -0.795872 0.568408
0.000000 0.000000 0.000000
0.062000 -0.070618 0.058087
0.000000 0.000000 0.000000
0.059000 -0.065346 0.048228
0.057000 -0.061539 0.055335
0.061000 -0.066537 0.055198
0.059000 -0.063401 0.050282
0.000000 0.000000 0.000000
0.000000 0.000000 0.000000
0.000000 0.000000 0.000000
0.000000 0.000000 0.000000
0.000000 0.000000 0.000000
0.061000 -0.060567 0.056362
0.070000 -0.069701 0.061113
0.073000 -0.071645 0.059059
0.070000 -0.067455 0.052171
0.000000 0.000000 0.000000
0.000000 0.000000 0.000000
0.000000 0.000000 0.000000
0.000000 0.000000 0.000000
0.065000 -0.059595 0.057389
0.075000 -0.067729 0.062168
0.067000 -0.060457 0.052363
0.067000 -0.059348 0.048392
0.000000 0.000000 0.000000
0.000000 0.000000 0.000000
0.000000 0.000000 0.000000
0.000000 0.000000 0.000000
0.066000 -0.056596 0.057471
0.074000 -0.061649 0.059333
0.071000 -0.058486 0.053418
0.068000 -0.054295 0.046530
0.000000 0.000000 0.000000
0.000000 0.000000 0.000000
1.314000 -1.021696 0.960368
1.414000 -1.076648 0.957861
1.164000 -0.903959 0.971598
1.254000 -0.949860 0.967339
1.347000 -0.998896 0.967995
1.445000 -1.045714 0.960710
1.183000 -0.879968 0.972255
1.277000 -0.922870 0.968078
1.370000 -0.966881 0.967873
1.473000 -1.013754 0.962586
1.203000 -0.856005 0.973913
1.296000 -0.893854 0.967873
1.397000 -0.937947 0.970666
1.503000 -0.981821 0.965462
1.222000 -0.831042 0.975597
1.320000 -0.867946 0.971585
1.415000 -0.903877 0.968599
1.527000 -0.945807 0.965449
1.241000 -0.807078 0.977254
1.341000 -0.839983 0.973351
1.442000 -0.873971 0.972420
1.552000 -0.910847 0.967408
1.262000 -0.783169 0.980911
1.359000 -0.809967 0.973174
1.461000 -0.840928 0.971325
1.582000 -0.877969 0.972310
1.278000 -0.756152 0.980651
1.379000 -0.780006 0.974995
1.489000 -0.811077 0.977145
1.603000 -0.839956 0.972352
1.298000 -0.731244 0.984335
1.396000 -0.749990 0.974818
1.511000 -0.779143 0.980021
1.625000 -0.801970 0.973393
1.314000 -0.704254 0.985075
1.417000 -0.721083 0.978611
1.528000 -0.743102 0.979008
1.647000 -0.764012 0.975434
1.326000 -0.675210 0.983870
1.434000 -0.690095 0.979460
1.545000 -0.708088 0.978967
1.669000 -0.726054 0.977474
1.339000 -0.646166 0.982665
1.452000 -0.659134 0.981309
1.567000 -0.674183 0.982898
1.686000 -0.686041 0.977571
1.352000 -0.617177 0.983460
1.468000 -0.627146 0.982186
1.579000 -0.637114 0.980912
1.708000 -0.647111 0.980638
1.371000 -0.591269 0.987171
1.480000 -0.594103 0.981091
1.593000 -0.600128 0.981926
1.717000 -0.604017 0.977818
1.384000 -0.562252 0.986966
1.496000 -0.562143 0.982967
1.612000 -0.565196 0.984884
1.738000 -0.565114 0.981885
1.397000 -0.533290 0.988760
1.508000 -0.528155 0.983899
1.630000 -0.529265 0.987870
1.748000 -0.522075 0.981064
1.405000 -0.502220 0.986610
1.523000 -0.496222 0.986775
1.640000 -0.490224 0.986939
1.760000 -0.480064 0.981216
1.421000 -0.474313 0.990376
1.536000 -0.462235 0.987706
1.655000 -0.453293 0.989952
1.773000 -0.438080 0.982366
1.431000 -0.443297 0.990226
1.545000 -0.427193 0.986666
1.666000 -0.415307 0.990993
1.787000 -0.396150 0.985516
1.437000 -0.412226 0.988077
1.557000 -0.393233 0.988597
1.677000 -0.377322 0.992034
1.796000 -0.353139 0.985695
1.447000 -0.381238 0.988926
1.563000 -0.358192 0.987557
1.683000 -0.337282 0.991131
1.802000 -0.310128 0.985873
1.458000 -0.351277 0.990748
1.576000 -0.324259 0.990488
1.692000 -0.299296 0.992172
1.812000 -0.267171 0.988051
1.471000 -0.321370 0.994568
1.584000 -0.289272 0.991447
1.701000 -0.260338 0.994240
1.818000 -0.223188 0.989256
1.476000 -0.289300 0.992446
1.585000 -0.253176 0.988434
1.706000 -0.220326 0.994337
1.822000 -0.180176 0.989435
1.487000 -0.258394 0.996294
1.597000 -0.218272 0.992392
1.709000 -0.180286 0.993433
1.826000 -0.136166 0.989641
1.493000 -0.226378 0.996172
1.602000 -0.182285 0.993379
1.713000 -0.141301 0.994502
1.827000 -0.092155 0.989847
1.500000 -0.194390 0.997048
1.605000 -0.146244 0.992366
1.719000 -0.101343 0.996598
1.832000 -0.049226 0.993024
1.505000 -0.162375 0.996925
1.613000 -0.110312 0.995351
1.720000 -0.061331 0.996694
1.835000 -0.006269 0.995202
1.508000 -0.129360 0.996830
1.619000 -0.074381 0.998337
1.722000 -0.022345 0.997762
1.830000 0.037769 0.994408
1.517000 -0.097427 0.999706
1.618000 -0.038312 0.996324
1.724000 0.017640 0.998858
1.836000 0.081643 0.999612
1.522000 -0.064467 1.001610
1.616000 -0.002271 0.995311
1.722000 0.056625 0.999927
1.830000 0.124682 0.998791
1.523000 -0.031424 1.000515
1.620000 0.033661 0.998297
1.720000 0.097637 1.000051
1.821000 0.168747 0.996998
1.524000 0.000591 1.000392
1.622000 0.070647 0.999311
1.717000 0.136650 1.000119
1.823000 0.212621 1.002202
1.528000 0.034524 1.003322
1.620000 0.106661 0.999297
1.715000 0.176607 1.002215
1.816000 0.255633 1.002380
1.531000 0.067511 1.004227
1.622000 0.143592 1.002311
1.711000 0.216592 1.003311
1.809000 0.298616 1.003558
1.529000 0.101526 1.004159
1.616000 0.180633 1.001325
1.705000 0.255605 1.003380
1.798000 0.340628 1.003709
1.535000 0.135431 1.008089
1.615000 0.216592 1.003311
1.701000 0.295563 1.005475
1.792000 0.383584 1.005887
1.534000 0.169446 1.008021
1.612000 0.253578 1.004325
1.693000 0.334575 1.005544
1.779000 0.425596 1.006038
1.530000 0.203460 1.007953
1.603000 0.289647 1.002312
1.683000 0.373616 1.004614
1.762000 0.466663 1.004163
1.531000 0.237393 1.010884
1.605000 0.327523 1.007352
1.678000 0.413518 1.008708
1.753000 0.508620 1.006313
1.525000 0.270462 1.008789
1.597000 0.363537 1.007338
1.665000 0.451586 1.006751
1.740000 0.549577 1.008436
1.519000 0.304505 1.007721
1.589000 0.399551 1.007325
1.653000 0.489599 1.006792
1.725000 0.590562 1.009559
1.517000 0.339437 1.010679
1.579000 0.435565 1.007312
1.646000 0.529530 1.009887
1.713000 0.631519 1.011682
1.510000 0.372479 1.009584
1.571000 0.472551 1.008326
1.632000 0.566543 1.009901
1.691000 0.669587 1.009724
1.503000 0.406494 1.009516
1.561000 0.508538 1.009312
1.619000 0.604529 1.010943
1.673000 0.708572 1.010793
1.493000 0.439563 1.007421
1.554000 0.545469 1.012325
1.604000 0.642515 1.011984
1.656000 0.747530 1.012861
1.492000 0.476440 1.012434
1.542000 0.580511 1.011285
1.590000 0.679501 1.012997
1.637000 0.786515 1.013930
1.481000 0.509482 1.011339
1.528000 0.615525 1.011244
1.574000 0.715487 1.013984
1.618000 0.823474 1.015943
1.477000 0.545387 1.015324
1.516000 0.650512 1.012203
1.560000 0.753446 1.016024
1.595000 0.860488 1.015957
1.464000 0.577457 1.013202
1.501000 0.685526 1.012162
1.538000 0.787488 1.014957
1.574000 0.896474 1.016944
1.453000 0.611471 1.013134
1.484000 0.718568 1.011067
1.525000 0.825391 1.018997
0.000000 0.000000 0.000000
1.444000 0.645431 1.015065
1.475000 0.756444 1.016107
1.501000 0.858461 1.016902
0.000000 0.000000 0.000000
1.434000 0.680391 1.017023
1.455000 0.788515 1.013985
0.000000 0.000000 0.000000
0.000000 0.000000 0.000000
1.421000 0.714405 1.016955
1.437000 0.821530 1.013889
0.000000 0.000000 0.000000
0.000000 0.000000 0.000000
1.409000 0.748393 1.017887
0.000000 0.000000 0.000000
0.075000 0.050556 0.053405
0.074000 0.054609 0.051516
1.394000 0.780408 1.017764
0.000000 0.000000 0.000000
0.000000 0.000000 0.000000
0.000000 0.000000 0.000000
1.371000 0.809562 1.012561
0.075000 0.049529 0.054377
0.078000 0.057471 0.056596
0.070000 0.056636 0.050571
0.000000 0.000000 0.000000
0.000000 0.000000 0.000000
0.000000 0.000000 0.000000
0.000000 0.000000 0.000000
0.000000 0.000000 0.000000
0.077000 0.056417 0.058568
0.075000 0.060470 0.056678
0.064000 0.057663 0.049598
0.000000 0.000000 0.000000
0.000000 0.000000 0.000000
0.000000 0.000000 0.000000
1.308000 1.222379 1.024876
0.068000 0.048584 0.052351
0.070000 0.056526 0.054569
0.000000 0.000000 0.000000
1.276000 1.248397 1.024588
0.000000 0.000000 0.000000
0.000000 0.000000 0.000000
1.266000 1.179395 1.023698
1.249000 1.280303 1.028464
0.000000 0.000000 0.000000
0.065000 0.057581 0.052597
1.237000 1.206412 1.023438
1.209000 1.298488 1.021960
0.000000 0.000000 0.000000
1.234000 1.145353 1.024765
1.210000 1.235374 1.025232
1.180000 1.327422 1.024754
0.000000 0.000000 0.000000
1.209000 1.175342 1.025587
1.181000 1.263364 1.025999
1.151000 1.356329 1.028547
1.209000 1.101452 1.020561
1.182000 1.202359 1.025328
1.151000 1.289409 1.024712
1.115000 1.376403 1.026096
1.190000 1.135357 1.024491
1.157000 1.233320 1.027176
1.124000 1.319315 1.028533
1.080000 1.398423 1.025699
1.167000 1.165346 1.025313
1.129000 1.260337 1.026917
1.090000 1.341389 1.026137
1.047000 1.422386 1.027357
1.142000 1.194390 1.024109
1.102000 1.288300 1.028683
1.058000 1.363436 1.024740
1.014000 1.446350 1.029014
1.117000 1.223379 1.024903
1.070000 1.310401 1.025288
1.030000 1.391316 1.029506
0.977000 1.463398 1.027480
1.087000 1.248479 1.021590
1.043000 1.338363 1.027054
0.995000 1.412390 1.027083
0.941000 1.482418 1.027001
1.065000 1.282384 1.025520
1.012000 1.362409 1.025713
0.964000 1.437326 1.029767
0.905000 1.500439 1.026495
1.041000 1.314290 1.029396
0.981000 1.387399 1.026398
0.929000 1.456373 1.028288
0.871000 1.521376 1.029069
1.012000 1.340335 1.028109
0.952000 1.414334 1.029137
0.895000 1.477393 1.027864
0.833000 1.535426 1.027454
0.982000 1.365353 1.027794
0.921000 1.438325 1.029794
0.860000 1.494441 1.026330
0.796000 1.550448 1.026865
0.953000 1.392343 1.028534
0.887000 1.459372 1.028370
0.827000 1.516378 1.028932
0.760000 1.566442 1.027303
0.920000 1.415444 1.025166
0.854000 1.481391 1.027974
0.792000 1.534372 1.029426
0.723000 1.580436 1.027687
0.893000 1.445323 1.029986
0.822000 1.503356 1.029576
0.756000 1.551393 1.028892
0.686000 1.595431 1.028098
0.860000 1.468369 1.028617
0.788000 1.524348 1.030151
0.721000 1.569386 1.029385
0.650000 1.610371 1.030508
0.828000 1.490388 1.028220
0.753000 1.542396 1.028645
0.685000 1.583381 1.029768
0.401000 1.062895 0.675375
0.794000 1.513434 1.026851
0.717000 1.559417 1.028111
0.647000 1.597430 1.028153
0.353000 1.003014 0.633719
0.764000 1.543286 1.032671
0.684000 1.582353 1.030741
0.404000 1.065757 0.680455
0.323000 0.989348 0.621340
0.729000 1.562361 1.030193
0.648000 1.600347 1.031234
0.355000 1.005930 0.636800
0.306000 1.013065 0.631993
0.694000 1.585325 1.031823
0.408000 1.077588 0.686782
0.319000 0.973628 0.610905
0.287000 1.032811 0.641538
0.657000 1.602401 1.029289
0.355000 1.007957 0.635855
0.308000 1.018980 0.635157
0.274000 1.081107 0.667871
0.395000 1.031455 0.654506
0.325000 0.995318 0.622504
0.285000 1.028922 0.637430
0.359000 1.564197 0.963218
0.358000 1.007095 0.630829
0.304000 1.011203 0.626941
0.289000 1.140181 0.702503
0.346000 1.680399 1.030427
0.326000 0.988567 0.613315
0.284000 1.031003 0.634486
0.361000 1.574193 0.963492
0.300000 1.641099 1.004340
0.307000 1.012367 0.620970
0.289000 1.152149 0.703831
0.347000 1.691395 1.030728
0.265000 1.652985 1.008668
0.284000 1.023363 0.621272
0.356000 1.573440 0.954468
0.296000 1.630514 0.989044
0.232000 1.690423 1.029701
0.288000 1.144563 0.688617
0.346000 1.711415 1.030277
0.271000 1.712305 1.034302
0.194000 1.696365 1.031865
0.358000 1.576823 0.940555
0.290000 1.625927 0.973913
0.233000 1.720274 1.035521
0.157000 1.706225 1.037137
0.347000 1.717796 1.016446
0.268000 1.737295 1.034987
0.194000 1.727244 1.036713
0.118000 1.699364 1.031947
0.299000 1.687493 0.990606
0.228000 1.743348 1.033153
0.154000 1.733242 1.036877
0.069000 1.460237 0.887341
0.271000 1.769393 1.031866
0.188000 1.754289 1.035453
0.115000 1.738213 1.038014
0.000000 0.000000 0.000000
0.229000 1.780416 1.031167
0.148000 1.763286 1.035700
0.063000 1.453787 0.867157
0.003000 1.055802 0.642168
0.188000 1.803243 1.037795
0.102000 1.685576 0.987552
0.022000 1.074850 0.640689
-0.019000 1.029223 0.626434
0.145000 1.808296 1.035933
0.055000 1.485775 0.868034
-0.001000 1.045354 0.621874
-0.040000 1.006561 0.613808
0.081000 1.444969 0.823899
0.015000 1.060458 0.618287
-0.024000 1.021719 0.608222
-0.062000 0.992758 0.606427
0.042000 1.288467 0.730576
-0.009000 1.033907 0.601553
-0.046000 0.988253 0.588297
-0.087000 1.028141 0.629406
0.009000 1.051120 0.594022
-0.031000 0.990608 0.575357
-0.068000 0.994141 0.592460
0.000000 0.000000 0.000000
-0.015000 1.016680 0.573070
-0.054000 0.988664 0.573303
-0.095000 1.036440 0.618629
-0.219000 1.694010 1.044805
-0.038000 0.990129 0.556337
-0.078000 0.997523 0.578548
0.000000 0.000000 0.000000
-0.254000 1.677208 1.037342
-0.064000 1.012819 0.567963
-0.107000 1.053653 0.611098
-0.240000 1.745018 1.045203
-0.290000 1.668212 1.037095
-0.088000 1.004959 0.562745
-0.226000 1.802997 1.046792
-0.278000 1.732133 1.040848
-0.327000 1.663159 1.038958
-0.116000 1.047368 0.584916
-0.267000 1.787194 1.039356
-0.318000 1.731051 1.043820
-0.364000 1.660078 1.041874
-0.253000 1.864166 1.041466
-0.309000 1.785168 1.040301
-0.357000 1.721110 1.041546
-0.398000 1.645166 1.038464
-0.299000 1.864166 1.041466
-0.351000 1.785113 1.042300
-0.395000 1.711168 1.039273
0.000000 0.000000 0.000000
-0.345000 1.862166 1.041411
-0.393000 1.778143 1.041109
0.000000 0.000000 0.000000
-0.263000 0.909419 0.581135
-0.390000 1.855224 1.039220
-0.436000 1.775117 1.042026
-0.256000 0.918909 0.563388
-0.275000 0.879814 0.566318
-0.436000 1.853197 1.040165
0.000000 0.000000 0.000000
-0.270000 0.890304 0.548599
-0.294000 0.873816 0.566154
0.000000 0.000000 0.000000
-0.265000 0.895795 0.530742
-0.289000 0.881334 0.547352
-0.323000 0.894315 0.584722
-0.265000 0.925058 0.521541
-0.282000 0.879993 0.523307
-0.308000 0.873365 0.546134
-0.335000 0.868654 0.572014
-0.280000 0.893481 0.505670
-0.303000 0.874967 0.524169
-0.336000 0.889003 0.559567
-0.369000 0.899957 0.597882
-0.301000 0.886511 0.504478
-0.321000 0.862109 0.518815
-0.352000 0.872173 0.553104
-0.368000 0.843828 0.565332
-0.323000 0.881540 0.503342
-0.351000 0.879719 0.533303
-0.358000 0.831737 0.531988
-0.374000 0.811278 0.548433
-0.349000 0.885374 0.509449
-0.358000 0.839282 0.512187
-0.374000 0.817852 0.527606
-0.395000 0.810114 0.554404
-0.365000 0.864629 0.499877
-0.375000 0.826369 0.508832
-0.388000 0.801022 0.521142
-0.412000 0.801145 0.553158
-0.380000 0.841857 0.491250
-0.398000 0.825260 0.512803
-0.415000 0.808745 0.531358
-0.427000 0.788205 0.550802
-0.403000 0.838803 0.493167
-0.418000 0.816291 0.511557
-0.441000 0.815469 0.541546
-0.476000 0.835146 0.590103
-0.422000 0.825890 0.489812
-0.441000 0.815154 0.516528
-0.485000 0.850661 0.571521
-0.874000 1.458934 1.044364
-0.433000 0.798229 0.477049
-0.480000 0.840596 0.537233
-0.504000 0.839665 0.571220
0.000000 0.000000 0.000000
-0.462000 0.805980 0.486265
-0.515000 0.855180 0.552638
0.000000 0.000000 0.000000
-0.235000 0.355959 0.261851
-0.479000 0.791068 0.482855
0.000000 0.000000 0.000000
0.000000 0.000000 0.000000
0.000000 0.000000 0.000000
0.000000 0.000000 0.000000
0.000000 0.000000 0.000000
0.000000 0.000000 0.000000
-0.239000 0.331270 0.250170
0.000000 0.000000 0.000000
0.000000 0.000000 0.000000
-0.246000 0.337514 0.241338
0.000000 0.000000 0.000000
0.000000 0.000000 0.000000
-0.247000 0.334872 0.228261
0.000000 0.000000 0.000000
-0.243000 0.308525 0.240543
-0.254000 0.340144 0.218401
0.000000 0.000000 0.000000
-0.253000 0.315715 0.233738
0.000000 0.000000 0.000000
0.000000 0.000000 0.000000
-0.257000 0.316016 0.222742
0.000000 0.000000 0.000000
-0.247000 0.286753 0.231944
-0.261000 0.316372 0.209747
0.000000 0.000000 0.000000
-0.255000 0.291997 0.223084
0.000000 0.000000 0.000000
0.000000 0.000000 0.000000
-0.235000 0.263830 0.192301
0.000000 0.000000 0.000000
0.000000 0.000000 0.000000
0.000000 0.000000 0.000000
0.000000 0.000000 0.000000
-0.061000 0.063660 0.049763
0.000000 0.000000 0.000000
0.000000 0.000000 0.000000
-0.062000 0.063715 0.047764
0.000000 0.000000 0.000000
-0.064000 0.062551 0.053734
0.000000 0.000000 0.000000
0.000000 0.000000 0.000000
-0.066000 0.063606 0.051762
0.000000 0.000000 0.000000
0.000000 0.000000 0.000000
-0.067000 0.061689 0.048708
0.000000 0.000000 0.000000
-0.064000 0.057608 0.051598
0.000000 0.000000 0.000000
0.000000 0.000000 0.000000
-0.066000 0.057663 0.049598
0.000000 0.000000 0.000000
0.000000 0.000000 0.000000
-0.067000 0.056718 0.047572
0.000000 0.000000 0.000000
-0.068000 0.056554 0.053570
-0.069000 0.056800 0.044573
0.000000 0.000000 0.000000
0.000000 0.000000 0.000000
0.000000 0.000000 0.000000
0.000000 0.000000 0.000000
0.000000 0.000000 0.000000
0.000000 0.000000 0.000000
-0.068000 0.051610 0.051433
0.000000 0.000000 0.000000
0.000000 0.000000 0.000000
-0.350000 0.254409 0.244062
0.000000 0.000000 0.000000
0.000000 0.000000 0.000000
0.000000 0.000000 0.000000
0.000000 0.000000 0.000000
-0.449000 0.310113 0.328620
-0.560000 0.377060 0.331455
0.000000 0.000000 0.000000
-0.489000 0.324080 0.330003
0.000000 0.000000 0.000000
-0.520000 0.331845 0.302205
-0.515000 0.326326 0.321061
0.000000 0.000000 0.000000
-0.496000 0.312509 0.350694
-0.540000 0.326682 0.308066
0.000000 0.000000 0.000000
-0.504000 0.303088 0.329428
0.000000 0.000000 0.000000
0.000000 0.000000 0.000000
-0.532000 0.304307 0.321458
0.000000 0.000000 0.000000
-0.505000 0.289600 0.347065
-0.574000 0.310442 0.316624
0.000000 0.000000 0.000000
-0.524000 0.284013 0.331906
0.000000 0.000000 0.000000
-0.580000 0.295475 0.315214
-0.554000 0.283233 0.323882
0.000000 0.000000 0.000000
-0.512000 0.265718 0.342409
-0.590000 0.283452 0.315885
0.000000 0.000000 0.000000
-0.538000 0.261022 0.331276
0.000000 0.000000 0.000000
-0.607000 0.274318 0.320636
-0.564000 0.256297 0.321143
0.000000 0.000000 0.000000
-0.365000 0.169523 0.238734
-0.093000 0.038697 0.048078
0.000000 0.000000 0.000000
